ply
format ascii 1.0
element vertex 92
property float x
property float y
property float z
property uchar red
property uchar green
property uchar blue
end_header
-0.304982047020724 0.5370875715576916 0.05349477138661966 17 17 25
-0.2970067344636127 0.4603346096771357 0.051603704732843314 60 56 53
-0.2943219225859502 0.4941481694909556 0.05593522739704364 83 79 76
-0.2904703750299088 0.50239541718701 0.05901870780863545 64 60 57
-0.24815869014786485 0.5192010709357537 0.08050895395667941 95 94 90
-0.2317067557608692 0.5165454845713472 0.09066014641828667 71 66 62
-0.20977921451477108 0.5102761471930747 0.10480998295166719 62 57 53
-0.19050532299882172 0.529229555707729 0.11786661843983315 50 46 45
-0.19050532299882172 0.529229555707729 0.11786661843983315 50 46 45
-0.13182171305979107 -0.44281327944174625 -0.15799529316269548 96 88 85
-0.12617787974586375 0.050091571805446565 -0.1281275761033623 96 94 95
-0.118788472696436 -0.23230451371297312 -0.14046491142593592 94 89 86
-0.2137546883935185 0.8668261670414865 0.45046790043459795 101 96 93
-0.1397063345205356 0.5154110348652308 0.1432645025241018 66 58 55
-0.1338488202441766 0.5127066639329707 0.14748762642783536 109 101 98
-0.1338488202441766 0.5127066639329707 0.14748762642783536 109 101 98
-0.08329188748878616 0.17928928379089942 -0.10020189278667703 184 178 178
-0.07880735767264639 0.04048704294629428 -0.10812003521461744 170 166 165
-0.07783707627646726 0.13579692446428765 -0.10368262204690543 175 170 166
-0.07707611322232141 0.10473440946659372 -0.10415332880781998 107 99 96
-0.06950307868899835 -0.434163854839573 -0.12348136183613549 66 55 51
-0.0713966406476482 0.0986242411464019 -0.10140731095921021 147 139 136
-0.0713966406476482 0.0986242411464019 -0.10140731095921021 147 139 136
-0.0677691683445358 -0.2425144715078476 -0.1170621967959231 51 40 36
-0.0667667832913787 -0.376188500502826 -0.12113815680780692 40 29 27
-0.06382668468182542 -0.6457659184109852 -0.13060252905481512 29 16 10
-0.06891582199679457 0.08728656080077885 -0.09986032608049936 21 12 13
-0.06596727540304216 -0.19127649085903276 -0.11291043378375777 131 121 119
-0.06465682346860496 -0.32382896016474916 -0.11750909439449708 114 104 102
-0.06313171653663636 -0.42839742995666946 -0.12096254845656029 111 101 100
-0.06260532431232886 -0.4547667445793473 -0.12032014448575747 26 18 16
-0.06260532431232886 -0.4547667445793473 -0.12032014448575747 26 18 16
-0.06738919549681865 0.18246595503580249 -0.09222953391199121 6 0 0
-0.06591069337539292 0.12233357341441053 -0.09605727351992804 10 6 7
-0.06591069337539292 0.12233357341441053 -0.09605727351992804 10 6 7
-0.06280049814608973 -0.19894474616621224 -0.10972287948724223 13 3 2
-0.06273457281252723 -0.06165483221223221 -0.10459790517769275 18 10 8
-0.059297104909594826 -0.4181225413840243 -0.11858998948310948 14 6 4
-0.05487095099185976 -0.6916633331208076 -0.1275160076545786 8 0 0
-0.05529417035186975 -0.5995167054543216 -0.12405691020823133 7 0 0
-0.06038568185319136 0.1591464888498124 -0.09002876003822323 11 7 8
-0.055995039340511796 0.06909437396130175 -0.09385480599204657 169 158 162
-0.05019220456439964 -0.32356237142119465 -0.10901990353819553 143 129 128
-0.049812670113318504 -0.3584088262173844 -0.10960132529957355 127 122 119
-0.049812670113318504 -0.3584088262173844 -0.10960132529957355 127 122 119
-0.046999413008251716 -0.49454287564020655 -0.11519474958173123 97 87 86
-0.04702737846940855 -0.45398456550880034 -0.11444696379641833 114 103 99
-0.046876658806705065 -0.4076104609895935 -0.11103328370098756 92 78 77
-0.042914825163456564 -0.6785308883899098 -0.1189248049545721 105 94 92
-0.03944913350747604 -0.601349622540108 -0.11975485865643504 135 116 110
-0.045824673965258966 0.1700538694625535 -0.08012839789379096 169 160 161
-0.040923753498597115 -0.054614809049509744 -0.09757278558953801 148 127 122
-0.03910794521345452 -0.41085159998554616 -0.10855078176598855 121 108 102
-0.03712989229979543 -0.3917767183423758 -0.10256481769696833 158 147 145
-0.03779312288435604 0.07327153274436997 -0.08883220999218118 93 78 71
-0.034461150930035434 -0.6452085811867431 -0.10773473675199657 118 108 106
-0.03705489403492029 -0.12016310303514903 -0.09171182109001846 145 131 128
-0.036073086473444683 -0.05908444143844188 -0.09462968675419246 83 64 58
-0.032433605317231974 -0.4613042926572773 -0.11057143784820062 52 33 26
-0.03027231162042079 -0.41203081308448597 -0.10163322890031974 17 3 2
-0.07827114148008893 0.4840384269623989 0.17364362108283063 94 89 85
-0.02975294262715223 -0.20178948731153135 -0.09593641209548207 171 152 146
-0.028621698124696535 -0.33648763239806107 -0.10215918977982988 145 128 121
-0.025772211755176938 -0.5610714972678307 -0.10782924908154826 134 110 100
-0.023865037117637745 -0.5070920897866174 -0.10942226612816897 134 123 119
-0.016001515922480503 -0.5888139229725576 -0.107590657862227 62 40 29
-0.010394011796871891 -0.5935658403278341 -0.09998709401310854 168 151 143
-0.009005638400193396 -0.49916166520715355 -0.0988469602813795 37 17 10
-0.004883836987195034 -0.63376700135667 -0.10328321192604743 133 111 100
0.001182872309760685 0.1444333769010696 -0.02305647062858162 54 46 44
-0.015824847269039845 0.521430096582653 0.2069361535011737 70 65 61
0.0020761711544097137 0.4861880981084254 0.21767154557932977 94 89 85
0.011429348439949234 0.5257324191271447 0.2251493214340835 71 63 60
0.09299722862588292 0.22533419797299478 0.04468314687553316 62 57 54
0.07360198040575543 0.4897150582711775 0.2576315882077576 98 93 89
0.1077371971993117 0.23905674686493678 0.05213200085350642 172 168 169
0.12376222616068054 0.23204089853589444 0.055985580353760105 84 80 81
0.1331399547830163 0.20025213625496968 0.05795548346629258 205 201 202
0.1331399547830163 0.20025213625496968 0.05795548346629258 205 201 202
0.14226810480067564 0.5317791702849918 0.2999984642764652 72 67 64
0.2174727396534983 -0.8956984523174164 0.055407222957562 54 46 43
0.2668715545876784 0.5428290406575554 0.3677944122016835 61 53 50
0.29184641417707063 0.5478249279479487 0.37877456271650484 56 48 45
0.39611991836448135 0.3960651607704139 0.1600862544599484 210 201 196
0.39903097040768537 0.3899993735064025 0.1630467636359881 39 28 22
0.4369375722734884 0.23630908486026214 0.17341480954754884 201 193 191
0.47692560835667586 0.3078211765883232 0.2207481143518102 171 132 125
0.4812810836743654 0.3319766352930999 0.2208157850532588 182 149 140
0.4855053617915838 0.33638083761164944 0.2226090600673842 55 25 17
0.5459377956863368 0.4611314722601196 0.25577294450651267 47 46 51
0.5690064815741235 0.35563415033153783 0.26682760860121707 138 133 130
0.579807164325938 0.3596130753426895 0.2665448730057982 80 70 69
